# .PCD v0.7 - Point Cloud Data file format
VERSION 0.7
FIELDS x y z
SIZE 4 4 4
TYPE F F F
COUNT 1 1 1
WIDTH 1445
HEIGHT 1
VIEWPOINT 0 0 0 1 0 0 0
POINTS 1445
DATA ascii
1.1276176 -2.5746541 -0.74103379
1.2090833 -2.5878124 -0.74907696
1.2730026 -2.5417325 -0.74344498
1.4118106 -2.4873364 -0.7425465
1.5346798 -2.4341481 -0.74218231
1.6658243 -2.3855989 -0.74523085
1.7169794 -2.3337152 -0.74007863
1.7870669 -2.3371458 -0.74866587
1.8695415 -2.2606156 -0.74328923
2.0698519 -2.1162236 -0.74552095
2.1743972 -2.047842 -0.74707901
2.2121425 -1.9833711 -0.74070752
2.2902527 -1.960631 -0.7481854
2.2724679 -1.9440978 -0.74929577
2.2936029 -1.8904132 -0.74271059
2.3333788 -1.8959252 -0.74353004
2.3884463 -1.8677813 -0.74731034
2.4245439 -1.8401833 -0.74846202
2.4137619 -1.7866142 -0.7427488
1.9894603 -1.6868426 -0.74429977
2.4917009 -1.6962672 -0.74012029
2.0999556 -1.6075855 -0.74761403
2.5986502 -1.6063309 -0.74376899
2.1607349 -1.51327 -0.74054885
2.6235945 -1.5360618 -0.7373023
2.6978793 -1.5208497 -0.74818999
2.1974857 -1.491416 -0.74666816
2.2261286 -1.4869379 -0.7481755
2.2713013 -1.4209044 -0.74649495
2.332279 -1.3375645 -0.74422365
2.3748703 -1.3034067 -0.74822414
2.3680573 -1.299269 -0.74636894
2.4181101 -1.2305913 -0.7454195
2.4540014 -1.1863564 -0.74540871
2.5037696 -1.1112806 -0.74438637
2.5771298 -0.99776214 -0.74422032
2.6377289 -0.90659744 -0.74584156
2.8340843 -0.37156597 -0.74659699
2.8151231 -0.3404505 -0.7396704
2.847816 -0.29526058 -0.74552882
2.8450031 -0.24222267 -0.74188799
2.8605328 -0.17981239 -0.74303734
2.8798575 -0.10475276 -0.74510747
2.8797393 -0.065841623 -0.74375349
2.9172397 -0.093329795 -0.74668467
2.8795714 -0.039969288 -0.74292773
2.9130199 -0.010583986 -0.7426886
2.9199739 0.028476398 -0.74768806
2.9081757 0.086985432 -0.74784839
2.9201324 0.10029212 -0.74188006
2.9396374 0.17658707 -0.7460438
2.9160614 0.2031118 -0.74904984
2.9351656 0.25401795 -0.74444008
2.9485128 0.30566648 -0.74809182
2.9524217 0.38363484 -0.74988562
2.9366217 0.4861736 -0.74761027
2.9030278 0.57325101 -0.74128264
2.8671081 0.80102265 -0.74261326
2.8704193 0.88170326 -0.74870938
2.8385456 0.96643674 -0.7466948
2.8142471 1.0129194 -0.74422669
2.7853997 1.0981436 -0.74451458
2.7596219 1.1849433 -0.7465573
2.732595 1.2295347 -0.7445612
2.7010853 1.3071823 -0.74567348
-0.54913318 2.2282703 -0.70153499
-0.35285425 2.2713757 -0.70389807
-0.25685811 2.2919989 -0.70709783
-0.17693806 2.2786863 -0.70365721
-0.5520159 2.3110919 -0.72144336
-0.33688366 2.3322029 -0.71759194
-0.14832169 2.3141747 -0.71099275
-0.43518901 2.3948176 -0.73491484
-0.2158712 2.3681324 -0.7233972
-0.29690146 2.4449859 -0.74250555
-0.10740091 2.4133584 -0.73442894
-0.33367637 2.4734728 -0.74451274
-0.25510988 2.4950476 -0.74299598
-0.19198647 2.4701419 -0.74796331
-0.12712693 2.4772532 -0.7455644
0.073936388 2.486799 -0.74539107
-0.16657004 2.5026445 -0.74705094
-0.14580914 2.5332904 -0.74432403
-0.055931374 2.5404325 -0.74976212
0.02420244 2.5220914 -0.7448287
0.1128151 2.5086994 -0.74595225
0.16272968 2.5443912 -0.74977869
0.21550752 2.5166385 -0.74515402
0.26645511 2.5032003 -0.74492699
0.34441888 2.5387807 -0.74460053
0.40796155 2.5012801 -0.74350446
0.52400285 2.5078487 -0.74619222
-0.0099154823 2.5735164 -0.74613231
0.17596543 2.5638919 -0.74538088
-0.54731429 2.6292026 -0.70094174
-0.40522894 2.6819825 -0.70621997
-0.54443604 2.7274835 -0.72140151
-0.26740918 2.7103963 -0.71004105
-0.13755031 2.7007287 -0.70704973
0.025660902 2.7388244 -0.7152909
-0.2358682 2.7553201 -0.71803391
-0.10854633 2.7696083 -0.72119635
-0.53746182 2.8223579 -0.74090421
-0.48446748 2.8495941 -0.74216229
0.060711995 2.8047898 -0.72934055
-0.34810045 2.9111285 -0.74479979
-0.28391647 2.9058893 -0.73910266
-0.14826046 2.9728789 -0.74559438
-0.069618322 2.9641438 -0.73943436
0.14606585 3.0253735 -0.74450648
4.6347222 6.0286851 -0.73801535
4.7147427 6.0059323 -0.74050546
4.567543 6.0687561 -0.73748434
4.4266586 6.1385045 -0.73556846
4.4953041 6.1012082 -0.73622626
4.3538804 6.1691833 -0.73430097
4.285676 6.2064843 -0.73381019
4.1419611 6.2684464 -0.73176986
4.2239103 6.2539186 -0.73444265
4.0090494 6.347229 -0.73176783
4.0764699 6.3094645 -0.73189825
3.9429696 6.3873219 -0.73194516
3.8010757 6.4497309 -0.73074317
3.8656297 6.4070616 -0.73015946
3.7274554 6.4753838 -0.72971207
3.6651881 6.5227947 -0.73090053
2.4648595 7.2979116 -0.7387535
2.0732348 7.3342967 -0.73365253
2.1528161 7.3346548 -0.73520225
2.2323847 7.3333011 -0.7366786
2.3100946 7.3230519 -0.73743308
2.38977 7.319509 -0.73887163
1.3255537 7.3866735 -0.73183894
1.4016955 7.3729224 -0.73144609
1.6877204 7.3763533 -0.73096794
1.7668082 7.380816 -0.73249924
1.8410971 7.3571625 -0.73160756
1.9219506 7.3681512 -0.73387307
1.9979556 7.3529115 -0.73387748
1.0202535 7.4485092 -0.73472285
1.0956481 7.4185891 -0.73262554
1.174547 7.4312849 -0.7343421
1.2498556 7.4056544 -0.73276323
1.6138737 7.4040365 -0.73235852
0.78899103 7.4918327 -0.73736769
0.86671996 7.485662 -0.73713881
0.9434433 7.4639874 -0.73562366
0.55554169 7.5345082 -0.74060541
0.63330674 7.5034318 -0.73797876
0.71142411 7.505661 -0.7383396
0.31911609 7.5921369 -0.74581039
0.39842832 7.5671659 -0.74349719
0.47711214 7.5707622 -0.74375761
0.239659 7.6046696 -0.74711007
2.1565206 -1.5088987 -0.65053958
2.1837847 -1.4998786 -0.65355259
2.3805268 -1.3080139 -0.66025895
2.6085119 -1.0872769 -0.67223758
-0.42082489 2.0499384 -0.65668607
-0.32390195 2.0965173 -0.66371697
-0.56481546 2.1440103 -0.65703213
-0.39287415 2.1384721 -0.65507835
-0.28513387 2.2038581 -0.65460521
-0.31608397 2.4219491 -0.65002996
-0.42148635 2.4966128 -0.66760486
-0.18204924 2.4835882 -0.6607703
-0.058454558 2.4943557 -0.66275185
-0.29176664 2.5117729 -0.66787696
-0.27565619 2.5929725 -0.6846115
-0.14945759 2.5701835 -0.67831993
2.8806984 2.7083492 -0.65420014
2.1110115 -0.91049981 -0.63415062
-0.91994572 1.4786828 -0.60841793
-0.82848293 1.5573814 -0.60872298
-0.72931862 1.6246016 -0.60687637
-0.63533658 1.6992729 -0.60993522
-0.59827447 1.7741657 -0.60614485
-0.49573654 1.7863883 -0.60386914
-0.59246892 1.8359243 -0.61860806
-0.43283224 1.8179163 -0.60756773
-0.39778274 1.8142191 -0.60620874
3.270412 1.8494091 -0.62496722
-0.47480354 1.8520954 -0.61628109
-0.3583433 1.8769404 -0.61731696
3.2000721 1.8887454 -0.6187734
-0.58183068 1.9317087 -0.63811147
-0.39939445 1.9136137 -0.62662351
3.0355597 1.9449892 -0.60199577
3.1196289 1.9194006 -0.6107288
-0.44471779 1.9511675 -0.63583988
-0.36205983 2.0137854 -0.64702529
2.89763 2.1604688 -0.60517287
2.9724019 2.1836376 -0.60855067
3.0609772 2.1650531 -0.61776626
-0.55769324 2.2109849 -0.64331681
-0.36689377 2.2297859 -0.64543617
-0.19312158 2.2294569 -0.64267546
2.8660512 2.2282274 -0.60009509
2.9251466 2.2198062 -0.61045432
-0.25638923 2.29037 -0.62275136
2.9444211 2.2905877 -0.62410647
-0.55370045 2.3142436 -0.63632506
-0.3380028 2.335238 -0.63293034
-0.14849462 2.3148131 -0.62665218
-0.44003353 2.374383 -0.64323014
-0.21914108 2.3791845 -0.63984734
2.7783346 2.3543713 -0.60312539
2.9896452 2.3773651 -0.63852584
-0.10584189 2.4062696 -0.64501655
2.8033206 2.449996 -0.61647546
2.8209674 2.5419555 -0.62870634
-0.55085945 2.6039028 -0.64861888
-0.42856717 2.6248641 -0.64859152
2.8504291 2.6235003 -0.64119011
-0.40820134 2.6901634 -0.6121673
-0.13577937 2.692812 -0.60959935
-0.5422821 2.7224283 -0.62218839
-0.26877797 2.7152722 -0.61467808
-0.39245293 2.7732337 -0.62634265
-0.24371395 2.7839682 -0.62619704
-0.10953091 2.7742589 -0.62401104
0.035445511 2.7737164 -0.62458414
-0.22316411 2.8197479 -0.63188034
-0.37823027 2.8693962 -0.64317054
-0.066958562 2.8608673 -0.63894463
0.083167233 2.8658407 -0.64121783
2.1717424 -1.5059537 -0.56529677
2.3838286 -1.3105882 -0.57259095
2.6077111 -1.0710005 -0.58000743
2.1166577 -0.92627752 -0.56326342
-0.83242375 1.4658134 -0.55500817
-0.59791678 1.4922374 -0.55048776
-0.74400526 1.5386333 -0.55586809
-0.65374237 1.5146755 -0.55264223
-0.57883894 1.5033544 -0.5540241
-0.56458157 1.573464 -0.55319875
-0.64868093 1.6003608 -0.55496532
-0.5575844 1.6615572 -0.56317484
-0.44885725 1.6951463 -0.55022162
-0.60206604 1.7228909 -0.55653775
-0.40993303 1.7776569 -0.55269676
-0.58084708 1.9304192 -0.5633266
-0.45009527 1.9379225 -0.55958712
-0.39706409 1.9087191 -0.55255312
2.9210439 1.9864448 -0.59110922
2.9842865 1.9707916 -0.59772027
-0.57095701 2.0448701 -0.5535987
-0.3596226 2.0220449 -0.55411887
2.8707261 2.0314806 -0.58908826
2.8887398 2.1095324 -0.5989902
2.7761676 2.2609141 -0.59284389
-0.5531314 2.3131225 -0.55138171
-0.21623194 2.3696361 -0.5526545
-0.43847215 2.4024854 -0.56232733
-0.31540498 2.4201641 -0.56279612
-0.10498676 2.4022148 -0.5581429
-0.42172253 2.4971967 -0.57808578
-0.18378395 2.4901695 -0.57353395
-0.057875484 2.4913685 -0.57328916
-0.29273713 2.5146956 -0.57879215
-0.27099949 2.5778887 -0.58921468
-0.55465353 2.6121831 -0.5566296
-0.52474159 2.9110656 -0.55206776
-0.037018403 2.9507561 -0.55241334
0.13442056 2.9584713 -0.5548476
-0.0033858269 3.0359383 -0.56490242
0.17625988 3.0160954 -0.56338733
0.20246373 3.0961094 -0.57574099
0.031421512 3.1284814 -0.57862312
0.23003781 3.1818252 -0.5890367
0.26096144 3.2315071 -0.59666044
-0.72521633 1.3648181 -0.54842699
-0.63949823 1.3584487 -0.53023183
-0.74446601 1.4474511 -0.53593642
-0.65271842 1.4317663 -0.54825538
-0.62315053 1.4277349 -0.54007471
-0.92555535 1.4836797 -0.53985131
-0.61471856 1.5446663 -0.54846823
-0.82886541 1.5577511 -0.53850311
-0.55006462 1.5655717 -0.54963362
-0.73732996 1.6348169 -0.53978741
-0.60919267 1.6298729 -0.54464293
-0.58198959 1.603478 -0.53830236
-0.50315768 1.6261438 -0.5395543
-0.48665184 1.6327329 -0.53463572
-0.52698374 1.6534255 -0.54528946
-0.63808393 1.7034705 -0.54058492
-0.5023424 1.7465487 -0.54990214
-0.59463489 1.8388199 -0.54773051
-0.47317243 1.8489484 -0.54407483
-0.43370083 1.8197361 -0.53785145
-0.36323163 1.861909 -0.5430252
-0.56729978 2.1328645 -0.54837656
-0.32636309 2.1028533 -0.54884714
-0.29050487 2.1877303 -0.54307276
-0.55702347 2.2179806 -0.53548777
-0.19039237 2.2373877 -0.53097749
-0.25680557 2.2918084 -0.54049164
-0.33718061 2.3331206 -0.54832846
-0.14575019 2.3033526 -0.54119551
-0.54987514 2.5690684 -0.50392383
-0.42905405 2.6261322 -0.50905591
-0.4067724 2.6861773 -0.51672989
-0.13546278 2.6913965 -0.51508087
-0.54065543 2.7187395 -0.52492589
-0.27163675 2.7248402 -0.52102911
-0.39306682 2.7750001 -0.52924711
-0.10965277 2.7748218 -0.52714479
0.035865888 2.7706482 -0.52703172
-0.54006678 2.8285947 -0.54088491
-0.23434407 2.8055058 -0.53174406
-0.37873784 2.8708603 -0.54290771
-0.069095522 2.872514 -0.5410974
0.082150325 2.8746157 -0.54247463
2.9405808 7.5902863 -0.51003551
2.7780099 7.6309886 -0.50946081
2.8629413 7.6221786 -0.51035899
2.5343513 7.6901631 -0.50885934
2.617661 7.6780281 -0.50942552
2.6968856 7.6513314 -0.50924581
2.4580672 7.7281246 -0.50974262
2.300055 7.7862396 -0.51067507
2.3834271 7.774138 -0.51110309
2.2188811 7.8239942 -0.51040006
2.3011982 7.8253274 -0.51021206
2.382654 7.8060007 -0.51023579
1.8890932 7.8974938 -0.50949073
1.9689322 7.8701715 -0.50885218
2.0540028 7.8697968 -0.50969917
2.1355979 7.8515515 -0.50963908
1.7281088 7.9492154 -0.5107457
1.8063016 7.9090991 -0.50933808
1.5622678 7.9737144 -0.51073956
1.6447649 7.9586186 -0.51056832
2.1737747 -1.5079824 -0.47966385
2.3823931 -1.3094846 -0.48486507
2.1174722 -0.92676342 -0.4902983
-0.79586273 1.3702672 -0.46165961
-0.70934558 1.3628327 -0.45310128
-0.72259945 1.4450953 -0.45218402
-0.63168585 1.4323652 -0.45366555
-0.83317977 1.4664466 -0.4548997
-0.60097605 1.4959028 -0.45853215
-0.58722067 1.4992088 -0.46073809
-0.74590492 1.5408318 -0.45596039
-0.65122676 1.5095073 -0.46028951
-0.61817104 1.5342064 -0.46042821
-0.55715919 1.5653658 -0.45963955
-0.54992241 1.5599594 -0.45823008
-0.66563118 1.6068947 -0.45756385
-0.50683129 1.6204683 -0.45274764
-0.56167895 1.6811888 -0.45541805
-0.44680041 1.6913224 -0.45018774
-0.60029596 1.7112494 -0.45782426
-0.47164676 1.7227499 -0.45568106
-0.43987858 1.7459055 -0.45658824
-0.50113088 1.7571599 -0.46135014
-0.40366679 1.7940875 -0.45066187
-0.44901627 1.9360403 -0.4507277
-0.56014103 2.2234905 -0.45592201
-0.18864086 2.2310007 -0.45020041
-0.2548013 2.285444 -0.4579435
-0.54757535 2.3296204 -0.46978259
-0.33687162 2.3321524 -0.46522388
-0.14971001 2.3198595 -0.46226391
-0.43698621 2.3989584 -0.47618368
-0.21971016 2.3814142 -0.4708561
-0.31515825 2.4192388 -0.47702184
-0.10588577 2.4064596 -0.47407138
-0.17729044 3.0132561 -0.45786813
1.293016 -2.5543563 -0.4446322
1.3308047 -2.5714729 -0.448129
2.1269131 -0.93239975 -0.41984275
-0.63219845 1.3586527 -0.43461317
-0.92444801 1.4781767 -0.44672003
-0.83527815 1.5596707 -0.44739556
-0.57908249 1.5998651 -0.44079337
-0.73421139 1.6253483 -0.44573253
-0.61153758 1.6326175 -0.44730368
-0.48009628 1.6328129 -0.44332427
-0.52209097 1.6630853 -0.44813389
-0.64122117 1.7020441 -0.44818491
-0.47304261 1.8487527 -0.43935341
-0.43243533 1.8261436 -0.44230163
-0.36448896 1.8800317 -0.4365761
-0.39710957 1.9090439 -0.44591755
-0.42484462 2.0201261 -0.44356224
-0.56359524 2.1341665 -0.44390592
-0.28736073 2.1963775 -0.44622293
-0.54804653 2.5651689 -0.41269827
-0.54939139 2.6337581 -0.42041185
-0.42739192 2.6218021 -0.41663769
-0.40619388 2.6845241 -0.42294121
-0.1370119 2.6983228 -0.42275262
-0.54108727 2.7196174 -0.42962864
-0.27230576 2.727428 -0.426819
-0.239187 2.7674391 -0.4304367
-0.1101293 2.7771945 -0.43153074
0.035213605 2.775532 -0.43175259
-0.53153133 2.8472183 -0.44359666
-0.38716179 2.8029869 -0.4358778
-0.22802231 2.838263 -0.43848142
-0.3709248 2.894855 -0.44594827
-0.068805307 2.8709769 -0.44185796
0.082205027 2.8742247 -0.44307107
-0.20325598 2.9236352 -0.4478991
-0.034867451 2.9379587 -0.44922921
2.1834686 -1.4995687 -0.39454135
-0.63708055 1.3561536 -0.3539502
-0.82925946 1.4694864 -0.37305316
-0.74187708 1.5362908 -0.38915977
-0.82134736 1.5546986 -0.35493231
-0.64210707 1.5997424 -0.37225038
-0.58135402 1.5960228 -0.35082969
-0.61114949 1.6248322 -0.36643592
-0.53623891 1.6560299 -0.36188126
-0.45016924 1.6977415 -0.38656834
-0.61269331 1.7149556 -0.36098367
-0.57222819 1.7089756 -0.37748316
-0.48083609 1.7386191 -0.35961357
-0.50411785 1.7557887 -0.37249228
-0.40543261 1.7881062 -0.36953032
-0.45560589 1.82494 -0.35714379
-0.41601914 2.0397732 -0.35394463
-0.57025975 2.1455584 -0.36831984
-0.29523063 2.1829536 -0.36726254
-0.55860311 2.2207479 -0.37562853
-0.18838082 2.2300775 -0.37146741
-0.26301551 2.2721703 -0.37635362
-0.14854728 2.3150859 -0.38033381
1.2959735 -2.5631056 -0.34649292
1.3321846 -2.5754154 -0.34854183
2.1680279 -1.5083671 -0.33775699
2.6100295 -1.0724891 -0.31651223
2.1115391 -0.92322069 -0.34584999
-0.82323599 1.3706995 -0.34217176
-0.71591866 1.3617662 -0.33857903
-0.729478 1.4455106 -0.3442871
-0.62640679 1.4332266 -0.33404756
-0.91150421 1.4847296 -0.34976086
-0.5850333 1.4964488 -0.33822951
-0.90230256 1.53181 -0.33600649
-0.66525906 1.5124638 -0.34076929
-0.61455798 1.5361681 -0.34129325
-0.59693104 1.5049697 -0.33787945
-0.80266267 1.5894153 -0.33409446
-0.55091906 1.5642835 -0.34583759
-0.72359145 1.6336758 -0.34980458
-0.50037223 1.6296774 -0.3448455
-0.48282921 1.6375352 -0.34919536
-0.70266724 1.6736109 -0.33530435
-0.65367877 1.7468736 -0.33369958
-0.64004469 1.7272465 -0.33238
-0.59708387 1.7343761 -0.33506572
-0.49860606 1.7460016 -0.33027616
-0.57337439 1.7936561 -0.34383702
-0.52825469 1.7815156 -0.33268973
-0.4758049 1.8331718 -0.33666885
-0.3601158 1.8809571 -0.33783087
-0.44582549 1.9533638 -0.3460747
-0.55088723 2.3088422 -0.34383228
-0.15126394 2.5779397 -0.32012314
-0.021541879 2.589946 -0.32119748
-0.56332517 2.6307418 -0.32869634
-0.070588753 2.6319289 -0.32555524
-0.41827288 2.676703 -0.32995731
-0.28646952 2.7248585 -0.33313313
-0.56697619 2.778554 -0.34062353
-0.12137271 2.7604492 -0.33512646
0.019845262 2.7801352 -0.33710107
-0.5293566 2.8419304 -0.3444441
-0.23500004 2.8078227 -0.3388893
-0.39084977 2.8600924 -0.34428823
-0.067315459 2.8626261 -0.34296945
0.082120188 2.8747056 -0.34462103
-0.20449437 2.9286287 -0.34846422
-0.034855843 2.9378905 -0.3489579
2.1211429 -0.92895406 -0.27627927
-0.9040727 1.3793677 -0.25956941
-0.81415075 1.3686191 -0.25283346
-0.63744509 1.3565128 -0.26886025
-0.62758762 1.423915 -0.2535713
-0.91841733 1.4773486 -0.26610869
-0.84621656 1.465457 -0.26073694
-0.7673974 1.4568512 -0.25523388
-0.74481821 1.5395101 -0.26029801
-0.65372938 1.5077188 -0.25297105
-0.62095064 1.5432388 -0.2511785
-0.82360274 1.5522096 -0.26576796
-0.64429468 1.5944613 -0.25918868
-0.55512357 1.5654261 -0.25208837
-0.73530447 1.6321844 -0.26663643
-0.6037659 1.6383547 -0.256502
-0.58080995 1.6021436 -0.25386783
-0.50244892 1.6252564 -0.25441238
-0.48039484 1.6332518 -0.25481361
-0.55356932 1.6622099 -0.26025224
-0.52528501 1.6508216 -0.25619513
-0.44808996 1.6937758 -0.25809914
-0.6009227 1.7281698 -0.26247877
-0.46622914 1.7265593 -0.26038849
-0.44901323 1.7220252 -0.25928977
-0.49965352 1.7548338 -0.26263267
-0.40427685 1.7809885 -0.26319721
-0.54399973 1.811494 -0.25006416
-0.56848311 2.1425743 -0.25277323
-0.55684197 2.2176669 -0.25698754
-0.52243763 2.9465952 -0.25154567
1.2944764 -2.5586755 -0.24757923
1.3315136 -2.573498 -0.24894515
2.1755631 -1.5098506 -0.22604132
2.6114795 -1.0734208 -0.22995004
2.1005666 -0.91666907 -0.20451158
2.7771554 0.71735287 -0.22047885
2.8003666 0.7473976 -0.22199076
-1.0036293 1.3881257 -0.24454041
-0.72289544 1.3627052 -0.24642003
-0.6510365 1.4298161 -0.24641721
-0.60071117 1.4956785 -0.24775894
-0.58585739 1.4974489 -0.24851114
-0.63601935 1.6940114 -0.24407265
-0.43007439 1.8236438 -0.24960271
-0.5274179 1.8918169 -0.23772001
-0.47115436 1.8664551 -0.24716018
-0.3598156 1.8803207 -0.23543873
-0.4460856 1.9395123 -0.23264806
-0.39829221 1.9112903 -0.23754925
-0.32094657 1.9644928 -0.24502854
-0.27726221 2.0529294 -0.24479978
-0.23328248 2.1351635 -0.24939236
-0.54937774 2.3059542 -0.22157647
-0.21727376 2.3731253 -0.22254923
-0.31562281 2.4205074 -0.2251087
-0.10697696 2.4110122 -0.22431645
-0.18307571 2.4875355 -0.2278451
-0.056255162 2.4827659 -0.22746888
-0.2823742 2.5260088 -0.229801
-0.15286389 2.5842986 -0.23237643
-0.021195486 2.5880184 -0.23257683
-0.55185765 2.6060777 -0.23573455
-0.42982906 2.6281517 -0.23574637
-0.40696314 2.6867006 -0.23820147
0.010028094 2.6514502 -0.23560083
-0.53952909 2.7162077 -0.24073465
-0.26018083 2.7369771 -0.24004814
-0.13801272 2.7027969 -0.23824848
-0.39225957 2.7726767 -0.24218525
-0.10891092 2.7714391 -0.24144675
0.034955472 2.7773888 -0.24195263
-0.22775412 2.8372412 -0.24466255
-0.53295559 2.8507333 -0.24709181
-0.3775323 2.8671777 -0.24663132
-0.068965837 2.8717325 -0.24620362
0.082132123 2.8751252 -0.24673297
-0.20362094 2.9250753 -0.2488156
-0.034785613 2.9374735 -0.2492837
2.2182174 7.8379059 -0.23679647
2.2995229 7.8182678 -0.23678277
2.3850505 7.815639 -0.23709063
1.8885468 7.8944831 -0.23661597
1.9695424 7.8733425 -0.23651303
2.0537536 7.8685741 -0.23671699
2.1383541 7.8643808 -0.23694776
1.7260259 7.9361525 -0.23685659
1.8067198 7.9115543 -0.23666206
1.5630684 7.9795361 -0.23718813
1.6437397 7.9517131 -0.23690659
-0.98653084 1.3839718 -0.15524653
-0.9250375 1.3833982 -0.16463467
-0.82313287 1.3706127 -0.16585244
-0.7171452 1.3627476 -0.1543387
-0.63628471 1.3624399 -0.16204752
-0.75295329 1.4478288 -0.15533231
-0.63793331 1.4295986 -0.1547194
-0.91358393 1.4730221 -0.16625461
-0.83957773 1.4671744 -0.1706232
-0.58674431 1.4957086 -0.15920006
-0.7478506 1.5428373 -0.16440952
-0.62827826 1.5182056 -0.16219699
-0.83124685 1.5603077 -0.16670066
-0.55164838 1.5642693 -0.15912479
-0.74008715 1.6383551 -0.16693731
-0.65640742 1.6043159 -0.17058052
-0.61009681 1.6309606 -0.16267729
-0.58181059 1.6033599 -0.16170357
-0.48963618 1.6314226 -0.15980613
-0.55716157 1.6790195 -0.16176429
-0.52612215 1.6521863 -0.16258836
-0.44938815 1.6962622 -0.16346687
-0.63219863 1.700668 -0.155809
-0.599397 1.7194188 -0.1602335
-0.46834815 1.7170902 -0.16387413
-0.52348149 1.7719322 -0.16564466
-0.40611324 1.7850404 -0.16549885
-0.47683528 1.8449608 -0.15058059
-0.43689066 1.8039178 -0.16613248
-0.51596928 2.930124 -0.15044068
-0.03603971 2.9449344 -0.15014268
-0.51808029 3.0219724 -0.15194939
-0.0031162649 3.0336926 -0.1515829
1.29246 -2.5527096 -0.14932461
1.3283898 -2.5645719 -0.14972438
2.1442957 -1.5698589 -0.14262021
2.149703 -1.5383908 -0.14229156
2.173965 -1.5082496 -0.14221817
2.5847762 -1.1676879 -0.14408211
2.6219335 -1.1442472 -0.14438547
2.6025491 -1.0676844 -0.14336853
2.1134248 -0.92434555 -0.13535632
2.7707283 0.72855961 -0.14032978
-0.36276433 1.8715856 -0.14731096
-0.44755596 1.9332732 -0.1350483
-0.42317903 2.0294099 -0.13635749
-0.36012354 2.0092442 -0.13595235
-0.32362285 2.0957339 -0.13711163
-0.56750149 2.1409647 -0.13840483
-0.39304808 2.1244831 -0.13764332
-0.28677875 2.1945522 -0.13850738
-0.55808598 2.2197821 -0.13951823
-0.362304 2.2309597 -0.13914539
-0.18964913 2.2347806 -0.13905412
-0.25584948 2.2887752 -0.1398937
-0.5544678 2.3156791 -0.1409594
-0.33411294 2.3248012 -0.14049231
-0.13938734 2.3296008 -0.14043939
-0.21645516 2.3700581 -0.14104982
-0.31429851 2.4169626 -0.14188726
-0.095388815 2.4172084 -0.14176126
-0.18321325 2.488003 -0.14287782
-0.058156997 2.4929788 -0.14293048
-0.28919521 2.503731 -0.14318185
-0.54840708 2.565937 -0.14482212
-0.27484325 2.5903399 -0.14454654
-0.15160741 2.5791295 -0.14428583
-0.021502763 2.5900011 -0.14448574
-0.54802001 2.6307495 -0.14584619
-0.43109721 2.6314547 -0.14555348
-0.40335062 2.6768012 -0.14612553
-0.13499939 2.6893265 -0.1460937
0.0096338242 2.6540594 -0.1455041
-0.54082233 2.7191701 -0.14720519
-0.26839021 2.7137749 -0.14657891
-0.39108098 2.7692845 -0.14757368
-0.23855871 2.7651448 -0.14729974
-0.11116548 2.7819281 -0.14758733
0.034532204 2.780885 -0.14763543
-0.53024447 2.8440785 -0.1491407
-0.23002091 2.8458807 -0.1486225
-0.37874213 2.8710461 -0.14918803
-0.068924457 2.8715432 -0.1489812
0.081796929 2.8777449 -0.14921249
-0.20461456 2.9291718 -0.14992349
1.2959142 -2.562928 -0.051330913
1.3394611 -2.5508695 -0.051279981
2.1657095 -1.6115719 -0.057425279
2.3939617 -1.5691912 -0.055094756
2.4896176 -1.5978589 -0.053516377
2.1554854 -1.5078635 -0.058849759
2.2148516 -1.511842 -0.05806144
2.3063781 -1.5444317 -0.05651252
2.6043603 -1.2999322 -0.055101573
2.6152134 -1.2056049 -0.055918481
2.6238303 -1.1133254 -0.056700803
2.1197424 -0.9281171 -0.065373003
2.8118069 0.69901472 -0.05988656
2.7752261 0.72953343 -0.060407791
-0.47520661 1.842226 -0.050306827
-0.36666751 1.8698726 -0.066824578
-0.44825107 1.9345994 -0.065776132
-0.41917229 2.0466771 -0.064250693
-0.35913223 2.0066688 -0.064959221
-0.32335353 2.0952504 -0.063761912
-0.56470466 2.136039 -0.06251929
-0.38608801 2.136956 -0.0630586
-0.29581833 2.1846652 -0.062468078
-0.55622357 2.2164488 -0.061373703
-0.36152828 2.2290692 -0.061742105
-0.26331872 2.273129 -0.061190028
-0.1825213 2.2532418 -0.061548103
-0.54872185 2.3318477 -0.05966185
-0.33456349 2.3259254 -0.060338788
-0.14777687 2.311902 -0.060707618
-0.2187108 2.3775918 -0.059678607
-0.31374329 2.4153385 -0.058995277
-0.10739605 2.4132705 -0.059142105
-0.18384665 2.4903796 -0.057945635
-0.057541281 2.4899237 -0.058005713
-0.29083019 2.5088232 -0.057577752
-0.55140322 2.5723267 -0.055880252
-0.27187595 2.5807281 -0.05648236
-0.15160021 2.579097 -0.056581672
-0.01953426 2.5779669 -0.05660972
-0.5475353 2.6296866 -0.054999817
-0.42492911 2.6153862 -0.055585697
0.011408925 2.6423144 -0.05558636
-0.40847674 2.6907649 -0.054453742
-0.54455006 2.7277665 -0.053456947
-0.25804099 2.7295671 -0.054059025
-0.13960505 2.7099168 -0.054405626
-0.1103179 2.7781546 -0.053348266
0.035293072 2.7750525 -0.053351443
-0.38823688 2.8060665 -0.052673902
-0.22464874 2.8254066 -0.052601352
-0.5332616 2.8514476 -0.051546074
-0.066777572 2.8597975 -0.052095823
0.081343405 2.8820262 -0.051597409
-0.52240109 2.9465015 -0.050078034
-0.37331581 2.9022434 -0.051163804
-0.20227398 2.9195549 -0.051104017
-0.034358844 2.9349349 -0.05090338
0.13386071 2.9654021 -0.05024299
-0.99049866 1.3869951 -0.04530371
-0.91589051 1.3836631 -0.0427722
-0.81320256 1.367566 -0.039361607
-0.71627235 1.3619993 -0.038088247
-0.63218063 1.363372 -0.044468231
-0.62486041 1.4364475 -0.038586441
-0.92415267 1.4824514 -0.034176424
-0.83264029 1.4660344 -0.036748104
-0.57714027 1.4923162 -0.047604702
-0.75523454 1.5452906 -0.0299538
-0.65420175 1.5078944 -0.039763216
-0.61797899 1.5325291 -0.043783389
-0.8263101 1.555058 -0.034246787
-0.55714047 1.5682776 -0.035837188
-0.73070765 1.6318871 -0.045221552
-0.65696067 1.6049917 -0.042826951
-0.6096741 1.6305459 -0.038252454
-0.58464277 1.6003129 -0.034652222
-0.50309241 1.6260331 -0.038956214
-0.48077971 1.6339966 -0.038706489
-0.63172895 1.6936635 -0.034334097
-0.55752474 1.6785829 -0.038538739
-0.5261488 1.6593542 -0.042306174
-0.44678241 1.6911451 -0.037534583
-0.60410881 1.7325879 -0.035562459
-0.46356252 1.7284845 -0.036553361
-0.49938717 1.754284 -0.035685562
-0.40659016 1.7861527 -0.035280243
-0.43540114 1.8141283 -0.040969815
-0.35330474 2.991946 -0.049774487
0.17443827 3.0403361 -0.048999254
0.21672805 3.1293585 -0.04749782
1.2940069 -2.5572853 0.04665859
1.3309251 -2.571815 0.048008051
1.5592275 -2.4164994 0.044956416
1.6022925 -2.33617 0.042129193
1.8642983 -2.3019364 0.04768692
1.6364698 -2.2451742 0.038702954
1.9006324 -2.2172925 0.04487668
1.6838081 -2.1561096 0.035806537
2.0122302 -2.1614645 0.045333065
1.9350891 -2.1184468 0.041325472
1.7286563 -2.069602 0.033102557
1.9746684 -2.0149114 0.038206127
2.0138798 -1.9264514 0.035700329
2.1720798 -1.5154058 0.025286008
2.5937154 -1.1575654 0.030800939
2.5934665 -1.1250899 0.029832343
2.615473 -1.0918227 0.029834431
2.1303279 -0.92176157 0.016917612
2.189961 -0.84348756 0.0058748038
2.2234383 -0.75144845 0.0052973926
2.2758257 -0.66792488 0.0060626762
2.3231466 -0.5808779 0.0067500295
2.365942 -0.49083436 0.0074195247
2.3986127 -0.39688829 0.0077625932
2.7941568 0.48539445 0.018743997
2.8027561 0.58493936 0.019814551
2.8040404 0.6724512 0.020606931
2.7820263 0.73091757 0.020055819
-1.0021192 1.3870305 0.043618895
-0.71707398 1.3575616 0.044915445
-0.61926985 1.4362624 0.043429513
-0.56947881 1.491387 0.046352141
-0.73773193 1.6297073 0.043305364
-0.53060585 1.896992 0.037213266
-0.47194237 1.8551335 0.040910333
-0.36218256 1.8744919 0.02946228
-0.45157745 1.94095 0.038943242
-0.50963926 1.9880108 0.041947495
-0.28126609 2.0453386 0.038474035
-0.54823422 2.3308659 0.021881837
-0.33780593 2.3346303 0.020420438
-0.21781629 2.3747778 0.02177464
-0.3206574 2.4349678 0.025058476
-0.10603884 2.4069402 0.023216315
-0.18382379 2.4903724 0.027132448
-0.058525309 2.4950957 0.027244063
-0.29042512 2.5076306 0.028158234
-0.5548538 2.579685 0.033719394
-0.27325913 2.5852087 0.031759158
-0.15195699 2.5806408 0.031311922
-0.021520153 2.5899165 0.031795099
-0.55191338 2.6392894 0.036490023
-0.4327426 2.6357415 0.035333637
-0.40603063 2.6844332 0.037234142
-0.13579549 2.6928859 0.036848571
0.0088986903 2.6589272 0.035113916
-0.53910041 2.715096 0.039846584
-0.26856819 2.7142496 0.038168117
-0.38527164 2.7974894 0.042458374
-0.10808034 2.7671747 0.040350977
0.035312876 2.7751167 0.040947895
-0.23486793 2.8074083 0.042394605
-0.53332877 2.8516245 0.046316642
-0.069409788 2.8739707 0.045454506
0.082407095 2.8727384 0.045722034
-0.37274098 2.9004669 0.047370341
-0.20487246 2.9301329 0.048233856
-0.035356149 2.9408691 0.048595052
2.5210869 -0.60020047 0.093055815
2.5524137 -0.52317935 0.093537405
2.5889163 -0.43472111 0.094461411
2.6213148 -0.34415904 0.095348418
2.657557 -0.25327533 0.096917607
2.7009616 -0.19869827 0.099889979
2.7671168 0.62876606 0.097775809
-0.90746564 1.3819948 0.059119586
-0.81786257 1.3717697 0.052434225
-0.63521522 1.3615159 0.062353767
-0.91850364 1.4774127 0.065281793
-0.83033127 1.4638319 0.058792289
-0.73606974 1.5298007 0.05830558
-0.63119125 1.5252924 0.050881371
-0.83044165 1.5593926 0.065786488
-0.55171454 1.5584517 0.050078705
-0.54643381 1.5719051 0.051756669
-0.62930596 1.6155576 0.05723777
-0.58367401 1.6056192 0.053425431
-0.48895139 1.6341525 0.053990219
-0.62995183 1.6908908 0.065048009
-0.55413151 1.6632555 0.059481204
-0.52799243 1.6548692 0.055771813
-0.44421953 1.6864901 0.056502175
-0.60001642 1.7273639 0.061558783
-0.56088686 1.7035871 0.059115291
-0.48088068 1.7306601 0.059798334
-0.40762281 1.7883252 0.063026734
-0.54589289 1.8051206 0.065706544
-0.43388623 1.8113778 0.051303029
-0.32360151 1.9585816 0.050574061
-0.35370523 2.993299 0.05171369
-0.17988178 3.0246055 0.052747816
-0.15212375 3.1205573 0.057348885
2.4930704 -3.6519094 0.12643811
2.4252028 -3.6213231 0.12337188
2.2537367 -3.5798981 0.1174408
2.3359735 -3.5952976 0.12005018
2.0355959 -3.5211143 0.10994691
2.0778611 -3.5105286 0.11031163
2.1647694 -3.54526 0.11383153
1.8743927 -3.4614301 0.10387805
1.9226208 -3.4697294 0.10520577
1.9714397 -3.4780278 0.10656846
1.8203936 -3.4361515 0.10163461
2.961797 -3.1047513 0.11721418
3.0776138 -3.1106172 0.12106644
3.1691844 -3.1174383 0.12427525
3.2608247 -3.1216145 0.12742856
3.3391278 -3.1434343 0.13090821
2.6477122 -3.0660696 0.10629811
2.727602 -3.0723443 0.1088459
2.779022 -3.0721531 0.11033168
2.8433909 -3.0896611 0.11299021
2.8916628 -3.0824618 0.11412817
3.007427 -3.0917125 0.11807211
1.2984012 -2.5702848 0.14631234
1.3289456 -2.5661583 0.14684016
1.543821 -2.4185433 0.14186513
1.593974 -2.3522623 0.13849914
1.8687375 -2.2798526 0.14536496
1.6373966 -2.2470262 0.13201292
1.8921206 -2.203372 0.14069861
1.6696182 -2.1876488 0.12878238
1.8995243 -2.1600859 0.13783902
2.0177732 -2.1693435 0.14374316
1.933195 -2.1157651 0.13592151
1.7356873 -2.0549872 0.12171322
1.8026723 -2.0579998 0.12508276
1.9635528 -2.0481944 0.13280731
2.0285506 -1.8997849 0.1257568
2.6211178 -1.0796115 0.11684865
2.8128121 0.59870034 0.10131885
-0.80236554 1.3788424 0.14405701
-0.80418581 1.4298006 0.11745758
-0.70046276 1.4660668 0.11109041
-0.70763499 1.5133846 0.11675575
-0.62617064 1.5141773 0.14440808
-0.6864056 1.5506355 0.11731675
-0.60761446 1.573036 0.11640063
-0.60933095 1.6299512 0.14988704
-0.58767557 1.6022294 0.14299369
-0.51405644 1.6304033 0.14552602
-0.63176292 1.6937572 0.13222669
-0.45329073 1.6921778 0.14950186
-0.47022352 1.8436844 0.1347838
-0.36288887 1.8611397 0.13484274
-0.44895464 1.9360003 0.1435003
-0.32409179 1.9599978 0.14428547
-0.36166334 2.013027 0.14993326
-0.37278244 2.3915219 0.10704741
-0.40875807 2.4136593 0.10998911
-0.3418842 2.5353687 0.1179681
-0.55054587 2.570498 0.12261745
-0.27364701 2.5864656 0.12035716
-0.17912196 2.577754 0.11983585
-0.023319021 2.5999358 0.1212024
-0.54472804 2.6235287 0.12661506
-0.42856777 2.6248653 0.12518518
0.010566175 2.6478915 0.12487599
-0.4057653 2.6835873 0.12929961
-0.13690373 2.6978405 0.12918721
-0.54089957 2.719281 0.13413236
-0.26990953 2.7189569 0.13136947
-0.39451933 2.779181 0.13684402
-0.11220309 2.7869453 0.13635688
0.035710558 2.7715111 0.13527462
-0.53019691 2.8439524 0.14380987
-0.23439436 2.8055258 0.13782713
-0.37728533 2.8665316 0.14360316
-0.068300232 2.8682861 0.14260328
0.081934854 2.8767312 0.14391375
-0.20402449 2.9265375 0.14742199
-0.03424342 2.9342496 0.14776571
0.12016948 2.9459827 0.14958709
2.3789198 -2.3552356 0.17582007
2.4287765 -2.3625395 0.17907339
2.2960575 -2.3048689 0.16785258
2.172807 -2.2506704 0.15750675
2.2171016 -2.2563748 0.16025624
2.1032915 -2.2097116 0.15099536
2.5210128 -0.60017413 0.17110774
2.5085714 -0.59579575 0.16947268
2.5543132 -0.52377278 0.17203259
2.5843258 -0.43338582 0.17249818
2.6254153 -0.34498635 0.17484368
2.6560013 -0.26518351 0.17659171
-0.98949289 1.3861877 0.15426444
-0.90621585 1.3810533 0.15573926
-0.7115823 1.3648587 0.16278408
-0.63868964 1.3578234 0.15349209
-0.62809885 1.4322786 0.16111305
-0.91268516 1.4767082 0.15377536
-0.83257437 1.4659343 0.155884
-0.73918885 1.4551886 0.15141805
-0.57535225 1.4988121 0.16679083
-0.7452718 1.5342247 0.16231008
-0.61944759 1.5461209 0.15201268
-0.81878263 1.5519985 0.15356708
-0.54578191 1.5670354 0.15549128
-0.72947621 1.6302327 0.15456347
-0.64278626 1.6016984 0.15082861
-0.49984711 1.6403862 0.15611823
-0.56560695 1.6783006 0.15622653
-0.52553368 1.6585058 0.15521811
-0.60096425 1.7215022 0.15456356
-0.47060379 1.7208364 0.15626281
-0.54943466 1.7799776 0.15252274
-0.49792609 1.7519493 0.15978593
-0.40627027 1.7854002 0.16177538
-0.44049388 1.8015752 0.15927204
-0.56874245 2.1430845 0.16713832
-0.38986361 2.1456549 0.16359098
-0.32539833 2.1003089 0.15818699
-0.56011075 2.2234969 0.17518812
-0.36308441 2.2329252 0.17219888
-0.28905636 2.2009304 0.16823162
-0.18910407 2.2328184 0.17093556
-0.25542098 2.2874155 0.17697458
-0.54912156 2.3326285 0.18634951
-0.33698744 2.3443885 0.15635987
-0.14777471 2.3116996 0.17902693
-0.31557062 2.4203887 0.19167216
-0.1059168 2.4065368 0.18921952
-0.29230177 2.5134091 0.1577657
0.14886367 2.9694269 0.15140131
0.17410693 3.0447471 0.15779221
0.21637861 3.1349812 0.16542505
-1.0002545 1.3858058 0.2460968
-0.63849783 1.3625298 0.23694386
-0.63361949 1.4319843 0.24791361
-0.9258467 1.4794475 0.24624839
-0.83243489 1.5566028 0.24578644
-0.74264193 1.6360122 0.24743789
-0.60558307 1.6255858 0.24468757
-0.58037055 1.6015176 0.24036442
-0.51262289 1.6362052 0.24324667
-0.48714381 1.6223762 0.24052396
-0.63590991 1.7002088 0.23518082
-0.54541636 1.7982924 0.24468113
-0.47038603 1.8440539 0.23746262
-0.52664894 1.8905253 0.24538726
-0.36583036 1.8679166 0.23882185
-0.40041512 1.9054495 0.24980316
-0.36508375 1.993242 0.24419117
-0.56433028 2.1354883 0.24332002
-0.32904541 2.1098261 0.23478459
-0.3810707 2.1544509 0.24087171
-0.28755444 2.1968029 0.24543162
-0.1887491 2.2315648 0.24941109
-0.54725027 2.5634696 0.21164225
-0.27553508 2.5925813 0.21021475
-0.024276808 2.5790293 0.23771502
-0.54336566 2.6205401 0.21780251
-0.42022663 2.6031356 0.21334389
0.011858895 2.6393371 0.21471451
-0.40535608 2.6824355 0.22182599
-0.13706064 2.6985426 0.22191244
-0.54419374 2.7268815 0.22977297
-0.26780465 2.7118239 0.22397088
-0.38903472 2.7633955 0.23051241
-0.23837006 2.7644567 0.22920284
-0.10878454 2.7707856 0.22985837
0.035631478 2.7721355 0.23044798
-0.5322597 2.8487878 0.24298303
-0.2252236 2.8275976 0.23627302
-0.378555 2.8704743 0.24255876
-0.068490222 2.8692977 0.24077931
0.083102077 2.8661504 0.24118835
-0.03612639 2.945452 0.24929282
-0.91462481 1.3875161 0.25578982
-0.79592532 1.3703388 0.26080003
-0.71385717 1.3620576 0.258827
-0.73429781 1.4457791 0.25834852
-0.62325341 1.4401934 0.25033161
-0.84274149 1.4621903 0.25484738
-0.5864417 1.4983926 0.25966513
-0.74131835 1.5355761 0.25375524
-0.62759423 1.5211632 0.26057261
-0.64788049 1.5992931 0.25346437
-0.5537765 1.5543717 0.26040569
-0.54368961 1.5678504 0.25242528
-0.55899036 1.6768055 0.25356221
-0.44936609 1.6962422 0.2503908
-0.46670485 1.7139754 0.25286138
-0.50011545 1.7554605 0.26011515
-0.40580451 1.7843249 0.26188993
-0.4367131 1.8168746 0.25395855
-0.45121655 1.9402536 0.25081614
-0.55486554 2.2140062 0.25337768
-0.35824674 2.2525752 0.25383642
-0.25876254 2.2978721 0.25914401
-0.55091876 2.3088548 0.26628318
-0.3372936 2.3332305 0.26455477
-0.14944397 2.3185201 0.26116714
-0.21787971 2.3747678 0.26889825
-0.31468683 2.4180603 0.27596822
-0.10548814 2.4046907 0.27290276
-0.054825619 2.4986241 0.25677535
-0.29072389 2.5227439 0.261011
-0.52121717 2.9434862 0.25326109
-0.36227399 2.9683161 0.25338355
-0.99717855 1.3876842 0.33786646
-0.82300419 1.3719143 0.34712973
-0.71713591 1.3576699 0.34471092
-0.63310099 1.3643066 0.32924432
-0.63357103 1.4379463 0.34408915
-0.92296183 1.4813926 0.33821633
-0.56773961 1.4892175 0.34835887
-0.66577256 1.5118723 0.34784183
-0.6164887 1.5465679 0.34826767
-0.83461154 1.563931 0.33960181
-0.56236517 1.5690945 0.33972418
-0.54648072 1.5605731 0.34727943
-0.73552692 1.6323513 0.33822104
-0.62920004 1.6154786 0.3405945
-0.58187878 1.6033049 0.33741251
-0.50542778 1.6297544 0.34800103
-0.48249266 1.63702 0.34074795
-0.63490862 1.6985732 0.33836192
-0.5629375 1.6992064 0.34880435
-0.52668834 1.653031 0.34427413
-0.44964397 1.6967014 0.34972939
-0.47314295 1.7141943 0.34907725
-0.4114188 1.7822882 0.34377006
-0.59811836 1.8261399 0.34501201
-0.43727905 1.8048005 0.33432496
-0.47579244 1.8537118 0.34447932
-0.35799554 1.8760688 0.3446933
-0.57037073 2.1230512 0.33968177
-0.28737694 2.1963966 0.32394993
-0.56386799 2.2302427 0.33739197
-0.36559814 2.239156 0.33247262
-0.18990286 2.2358315 0.3297804
-0.2550565 2.286397 0.33852059
-0.33936086 2.3389473 0.34868518
-0.13948528 2.3300576 0.34508228
-0.55218494 2.5739932 0.34983224
-0.27687308 2.596916 0.34663048
-0.54796535 2.6306291 0.31182128
-0.42646375 2.6193845 0.30707219
-0.40607208 2.6843562 0.31558174
-0.27260891 2.6778569 0.31307346
0.0089592487 2.6585281 0.30916411
-0.54393858 2.7262776 0.32540244
-0.26166782 2.7413623 0.32224607
-0.14176472 2.7195721 0.3187857
-0.38787234 2.7600498 0.32590103
-0.23939142 2.7681863 0.32538736
-0.11011203 2.7770777 0.32664111
0.035796285 2.771414 0.32626879
-0.53009409 2.8437688 0.34168094
-0.22463599 2.8253586 0.33352852
-0.37919867 2.8723617 0.34231704
-0.06832917 2.8683286 0.33955434
0.083211094 2.8655453 0.34014285
-0.90919173 1.3832983 0.35501531
-0.84416538 1.4714925 0.35059929
-0.75000679 1.4501041 0.35605288
-0.60186118 1.4969177 0.35129154
-0.76071429 1.5427232 0.35850698
-0.55044991 1.6572335 0.35363054
-0.60156578 1.7129586 0.35868505
-0.49949205 1.7463534 0.35517615
-0.55101347 1.7946872 0.35382727
-0.52673632 1.8906618 0.35227883
-0.58292025 1.9335663 0.36337143
-0.45035204 1.9388249 0.35894814
-0.39755687 1.9097695 0.35195768
-0.57333165 2.0400519 0.3637549
2.8666215 2.2287302 0.39936572
2.779963 2.2641549 0.39278388
-0.55428314 2.3152859 0.35103264
-0.22027957 2.3832288 0.35454524
-0.31945896 2.4315102 0.36428499
-0.097764596 2.4283729 0.36192673
-0.058657512 2.495681 0.37325862
-0.29079956 2.5087399 0.37672123
-0.01137726 2.6118391 0.37091112
-0.51539969 2.928673 0.35328394
-0.037186235 2.9517572 0.3517046
-0.0036155581 3.0374129 0.36426878
-0.99934691 1.3893042 0.40898603
-0.91743338 1.4764475 0.40668029
-0.8307718 1.5598391 0.40877321
-0.73743623 1.6348784 0.4095237
-0.69525427 1.6299125 0.40156478
-0.63467801 1.6982191 0.40872666
-0.5923636 1.7662567 0.40267393
-0.54218084 1.7994928 0.40656123
-0.48854345 1.7939494 0.40376458
-0.40018594 1.795596 0.40109339
-0.59423691 1.8383701 0.41859129
-0.47141963 1.8458647 0.41353059
-0.43898156 1.8080134 0.40512788
-0.52662218 1.8905905 0.42495671
-0.40269825 1.8958372 0.42181587
-0.35844785 1.8774132 0.41656718
-0.58005196 1.9290571 0.43643057
-0.44640821 1.9310902 0.43040431
-0.28765756 2.1969697 0.44412422
2.9761961 2.1867034 0.40847364
3.0501647 2.1567912 0.41476136
-0.55555212 2.2279737 0.43879965
-0.36575156 2.2267506 0.44384733
2.9236736 2.2102208 0.40437666
-0.25150174 2.2752037 0.41820669
-0.54509676 2.3243022 0.43662322
-0.33721304 2.3331892 0.43157068
-0.14042243 2.3339553 0.42963836
-0.22597839 2.3579118 0.43470436
2.7800117 2.3559575 0.40264034
-0.3171322 2.4247911 0.44987607
-0.09492518 2.4147823 0.44551402
2.8050566 2.4273725 0.41331962
2.7929175 2.4641681 0.41601196
2.8286242 2.5496688 0.42957631
-0.55222219 2.6399665 0.40750396
2.8531582 2.6263113 0.44095892
-0.13706881 2.6985793 0.40987983
-0.5436886 2.725765 0.42206627
-0.26779231 2.711803 0.41312274
-0.11019053 2.7776253 0.42380923
0.035915345 2.7698495 0.42294225
-0.23494905 2.8077762 0.42937112
-0.066705689 2.8596413 0.43783227
-0.57448423 2.0207438 0.45622653
-0.38960534 2.1450129 0.47554472
-0.057979673 2.492137 0.46134552
-0.29241413 2.5137317 0.46749979
-0.55362737 2.5770693 0.48980284
-0.27120537 2.578557 0.48027444
-0.020385146 2.5829675 0.48046425
-0.54705471 2.6286316 0.49997106
0.010855585 2.6459801 0.49368793
2.8854582 2.7133553 0.4544422
-0.034981042 2.9386382 0.45187595
-0.55891103 2.2460535 0.50614709
-0.35286057 2.2713933 0.50305045
-0.2564612 2.2906477 0.50585443
-0.54951537 2.3332944 0.5255872
-0.33964929 2.3396337 0.51886356
-0.14668228 2.3074245 0.50825018
-0.21903995 2.3790326 0.52557224
-0.11410376 2.3845718 0.52638513
-0.33064649 2.4245417 0.53939718
-0.53939062 2.7157934 0.51763588
-0.26838133 2.7137825 0.50999981
0.026242152 2.7346876 0.51344192
-0.11054906 2.7790647 0.52255893
0.047990218 2.7884977 0.52508295
-0.22276911 2.8182442 0.53042758
-0.080942139 2.8546948 0.53834599
1.4339893 -2.5860565 0.56477845
1.4881098 -2.5555954 0.56284922
1.5712817 -2.5534806 0.5699895
1.645529 -2.4930789 0.56448442
1.7181295 -2.4995775 0.5732668
1.6294937 -2.4418228 0.55553353
1.7167377 -2.4463725 0.56520265
1.759469 -2.4198651 0.56277156
1.8364818 -2.4158494 0.5704813
1.896608 -2.3721659 0.56764269
1.9222749 -2.3397634 0.56636065
1.9814458 -2.3254027 0.56978816
2.0537333 -2.3003533 0.57340747
1.982272 -2.2879593 0.5668062
2.0242565 -2.2697144 0.56522107
2.0903082 -2.2567222 0.57127184
2.0269198 -2.2431939 0.56351489
2.084115 -2.2359107 0.56532735
2.104507 -2.2204752 0.5690847
2.1136031 -2.1723254 0.55754137
2.162025 -2.168838 0.56568885
2.2030773 -2.1874454 0.57295948
2.3945932 -2.1685097 0.59790987
2.2341022 -2.1330681 0.56868625
2.2586548 -2.1238511 0.57312286
2.3352635 -2.1492772 0.58556396
2.2638063 -2.0657196 0.5642336
2.3232853 -2.0657687 0.57285625
2.3462219 -2.0138807 0.56889093
2.3729255 -1.9683754 0.56299925
2.4048889 -1.9910108 0.57008791
2.4483349 -1.9419188 0.57176811
2.454597 -1.9157066 0.56501764
2.5142238 -1.9104282 0.57368588
2.4760122 -1.8581483 0.56193054
2.5460951 -1.8414402 0.57046318
2.5722001 -1.7985886 0.56920618
2.6057773 -1.7691262 0.56874251
2.6313353 -1.7264173 0.56727612
2.672225 -1.6922207 0.56844604
2.7347116 -1.675409 0.57651377
2.7145956 -1.6142019 0.56420368
2.3396392 -1.5949582 0.59242111
2.7818701 -1.5898454 0.57244426
2.3707178 -1.5294365 0.58631575
2.812391 -1.5144886 0.56711578
2.3850935 -1.4326326 0.57180011
2.8583336 -1.4334389 0.56428504
2.9332662 -1.4104428 0.57529342
2.9391458 -1.3390558 0.56714034
2.9449773 -1.2513748 0.55727565
3.0351319 -1.2343208 0.57299507
3.0448844 -1.1501576 0.56517971
2.9794979 -0.46430302 0.59329224
2.9935255 -0.41068026 0.59357083
3.0284293 -0.31858507 0.59757227
3.0588415 -0.16796783 0.59912556
3.1320941 0.029931752 0.59914011
3.1200233 0.072846264 0.59499431
3.1242495 0.15610215 0.59489304
3.1304517 0.23938498 0.59595889
3.1434214 0.30915749 0.59950906
3.1000657 0.55722326 0.59232557
3.0945387 0.62623399 0.59319448
3.1128151 0.67121154 0.59981728
3.7241507 1.3584979 0.5912168
3.675807 1.400701 0.58542186
3.5993595 1.4506736 0.57533836
3.6236119 1.5430279 0.58680773
3.6520679 1.6188284 0.59794593
3.5346348 2.0228951 0.59504986
3.487062 2.0608521 0.59104025
3.4797771 2.1242559 0.59645271
-0.32945558 2.4996185 0.55827743
-0.077572025 2.4904263 0.55214226
-0.29174662 2.5116243 0.5581249
-0.52780616 2.5540469 0.57609749
-0.020453557 2.5832241 0.57383734
-0.52223814 2.6413496 0.59678429
0.011055723 2.6446552 0.58875501
-0.24208413 2.7251267 0.55924225
2.3313868 -1.879335 0.64635175
2.3191299 -1.7990158 0.62807935
2.3271122 -1.7229146 0.61458027
2.3388901 -1.6532362 0.60330433
3.0297153 -0.36158672 0.60017508
3.0515826 -0.28018355 0.60179353
3.0585957 -0.22447515 0.60123134
3.0838225 -0.10505623 0.60382783
3.1060421 -0.088432252 0.60922778
3.1462862 0.281212 0.60018253
3.1506836 0.36544144 0.60191268
3.1504259 0.44977009 0.60309458
3.154511 0.50661451 0.60540849
3.7995684 1.3455006 0.60407913
3.8532441 1.302346 0.61110204
3.703095 1.6859225 0.61248511
3.7415533 1.7486196 0.62453312
3.7511842 1.7982333 0.63051391
3.8275721 1.9388263 0.63666117
3.6630108 1.9855127 0.61293256
3.7460136 1.9638013 0.62496817
3.5896013 2.0107989 0.60302538
3.4998565 2.1836219 0.60604239
3.5224607 2.2701039 0.61909723
3.5325961 2.3500373 0.62959832
0.031534597 2.6969311 0.60182524
-0.2239081 2.7116513 0.60424429
-0.091404527 2.7565682 0.61567909
0.065851212 2.7631123 0.61821336
2.2501063 -2.0927682 0.67693406
2.311522 -2.0208426 0.67193627
2.3242252 -1.9400574 0.65741605
5.2706308 1.4220593 0.69190258
5.1152172 1.4886415 0.67100054
5.2024531 1.458727 0.68300396
5.047452 1.5227214 0.6622315
5.0710487 1.6114558 0.66996658
5.1009932 1.7038348 0.67901158
5.1332722 1.7708496 0.68728322
5.6024938 1.2759316 0.73752075
5.5156488 1.3139443 0.72543252
5.3512902 1.3873197 0.70288104
5.4383354 1.3525991 0.7149325
1.0686907 -3.1725137 -0.75013363
1.2320969 -3.1618371 -0.75525004
1.1306958 -3.1434965 -0.75214493
1.3256584 -3.1085114 -0.75446796
1.397444 -3.0867653 -0.75002873
1.4350537 -3.086693 -0.75224501
1.6160409 -2.9594345 -0.75522155
1.8104076 -2.9596834 -0.75593626
1.9591552 -2.8552945 -0.75060558
1.9529524 -2.8295629 -0.7569567
2.0347104 -2.8056285 -0.75130296
2.0763595 -2.8075237 -0.75349259
2.0189681 -2.7599287 -0.75052553
2.1189702 -2.7721741 -0.75363398
-0.061170608 -2.7068288 -0.75727189
0.16618432 -2.7262342 -0.75539726
0.23786426 -2.7043273 -0.75788981
0.36329722 -2.7300508 -0.75416446
2.0799782 -2.7069845 -0.75135314
2.174088 -2.7068121 -0.75581878
-0.14528367 -2.6609626 -0.75030822
0.14481476 -2.6658564 -0.75094682
0.46619815 -2.6940861 -0.75398439
0.52865398 -2.6595342 -0.75500649
0.662736 -2.6829479 -0.75346124
0.43781406 -2.6410048 -0.75067401
0.75466824 -2.6334915 -0.75217777
0.80461007 -2.6092246 -0.75690252
0.94815707 -2.6245713 -0.75243104
1.0246903 -2.6195316 -0.75112039
1.1001227 -2.6315947 -0.75762933
2.266057 -2.6342449 -0.75666583
2.380105 -2.6126721 -0.75493515
0.41275084 -2.5560923 -0.75174415
0.7115618 -2.5905094 -0.75064534
1.0277222 -2.5613999 -0.75364649
1.2544107 -2.5630794 -0.75169587
0.0020635182 -2.5141387 -0.7530176
1.0096943 -2.5195293 -0.75212276
1.1017737 -2.5173659 -0.75553089
1.2197433 -2.5183122 -0.75377953
1.3742287 -2.5014577 -0.75261939
-0.17920931 -2.4899075 -0.75670767
-0.086082719 -2.491905 -0.75210708
1.4979683 -2.4815075 -0.75267613
2.4801226 -2.4991689 -0.75735813
1.3175476 -2.4441955 -0.75110215
1.4755396 -2.4247646 -0.7510339
1.6475794 -2.4093215 -0.75135142
-0.56795287 -2.3581436 -0.75652641
-0.48997593 -2.367404 -0.75178051
1.5055147 -2.3874674 -0.75218701
1.6390069 -2.3847337 -0.75661951
-0.7653029 -2.302748 -0.75102633
0.32885957 -2.3287721 -0.75182903
-0.83951163 -2.2816138 -0.75454694
-0.77005035 -2.2528102 -0.75427818
0.24537057 -2.2674794 -0.75770539
0.26651698 -2.2923617 -0.75283724
0.59225947 -2.2952645 -0.75336599
0.70881683 -2.2813687 -0.75241894
0.89791864 -2.2776964 -0.7519688
1.0260489 -2.2532055 -0.7535798
1.7782891 -2.2896285 -0.75059086
-0.10627064 -2.2339416 -0.75203758
0.11874694 -2.2263436 -0.75077879
0.15757823 -2.230026 -0.75033921
0.30547026 -2.2000382 -0.75017858
0.38275975 -2.2144217 -0.75273389
1.9094427 -2.2358947 -0.75141543
-1.0326918 -2.1617243 -0.75326902
-0.9382183 -2.1503062 -0.75267041
0.67214555 -2.1679881 -0.75271267
0.75191462 -2.1821501 -0.75807321
1.1536649 -2.1858988 -0.75175053
1.2830492 -2.1608522 -0.7565133
1.8995693 -2.1981354 -0.75034225
1.0211406 -2.124337 -0.75324678
2.1351614 -2.1256435 -0.75288415
-0.38145146 -2.0601897 -0.75440997
-0.2790316 -2.0835829 -0.75097024
-0.13030206 -2.091162 -0.75554007
-0.024302641 -2.0979455 -0.75017011
1.3970827 -2.0798361 -0.75364041
-1.1925765 -2.0472353 -0.75254178
-0.59301817 -2.0232434 -0.7548306
-0.50314289 -2.0461221 -0.75030619
1.3375421 -2.0443902 -0.75513661
1.5167358 -2.0277257 -0.75384301
2.153791 -2.0367858 -0.75005662
-0.80997038 -1.9639864 -0.75482875
-0.77971232 -1.9639051 -0.75071108
-0.74621975 -1.9838471 -0.75093323
-0.41095963 -1.9840966 -0.7532115
2.273097 -1.9903805 -0.75213718
-0.97830987 -1.9058827 -0.75216711
-0.65077609 -1.92836 -0.75229317
1.7051328 -1.9111218 -0.75000358
2.3585539 -1.9236205 -0.75332767
-1.0558586 -1.8574959 -0.75365192
-1.0162885 -1.8694557 -0.7500084
-0.86271209 -1.8637962 -0.75323141
-0.80201125 -1.8896137 -0.75036722
-0.77284944 -1.8533204 -0.75111586
1.6444637 -1.8999741 -0.75202769
2.441489 -1.8553298 -0.75405174
3.1402469 -1.8848447 -0.75714368
1.8793974 -1.8206655 -0.75498527
2.4841685 -1.800671 -0.75452775
-1.0740522 -1.7726018 -0.75266463
1.8453989 -1.7798787 -0.75106829
2.4932287 -1.7796007 -0.75096214
2.5069137 -1.7793226 -0.75177068
1.9522383 -1.7059007 -0.75081599
2.5856268 -1.7023939 -0.75333703
3.2516899 -1.7424133 -0.75721431
-1.2897226 -1.6689653 -0.75532907
